-0.014025 0.012818 -0.080354
0.014543 -0.012228 -0.054353
0.015776 -0.010589 -0.051037
0.018733 0.003176 -0.038420
0.018423 0.004646 -0.032258
0.008170 0.017154 -0.039764
0.009465 0.016474 -0.034037
0.018759 0.003017 -0.027055
0.018054 0.005920 -0.025019
0.014217 -0.012604 -0.041820
0.017037 -0.008410 -0.043198
0.014706 -0.012030 -0.186248
0.017121 -0.008239 -0.184576
-0.011727 -0.014949 -0.169897
-0.014297 -0.012513 -0.169687
-0.013716 -0.013148 -0.163363
-0.015107 -0.011523 -0.174600
-0.015982 -0.010275 -0.168357
0.008736 0.016873 -0.015654
0.005522 0.018180 -0.020740
0.009064 0.016699 -0.021308
-0.018731 -0.003185 -0.170822
0.015982 -0.010275 -0.046354
0.017632 -0.007079 -0.047728
0.017489 -0.007426 -0.052411
0.015335 -0.011217 -0.163767
0.018637 0.003698 -0.049408
0.018728 0.003205 -0.044497
0.018840 -0.002458 -0.046328
0.003950 -0.018353 -0.210000
0.000464 -0.018994 -0.207510
0.003950 -0.018353 -0.010000
-0.010938 0.015536 -0.135191
-0.007099 0.017624 -0.132036
-0.010175 0.016046 -0.132049
0.006543 0.017838 -0.030682
0.009412 0.016505 -0.030785
0.006485 0.017859 -0.027430
-0.018741 -0.003127 -0.118237
-0.017636 -0.007068 -0.117675
-0.018374 -0.004838 -0.115677
-0.015853 -0.010473 -0.117919
-0.013462 -0.013408 -0.075926
-0.012629 -0.014195 -0.072122
-0.011566 -0.015074 -0.075117
-0.011751 -0.014930 -0.068319
-0.010637 -0.015744 -0.071314
-0.009466 -0.016474 -0.074309
-0.013260 0.013607 -0.010000
-0.001773 0.018917 -0.010000
0.018851 -0.002374 -0.010000
-0.018994 0.000483 -0.202540
0.018889 -0.002052 -0.210000
-0.000066 -0.019000 -0.201700
-0.012707 -0.014126 -0.174810
-0.012039 -0.014699 -0.083050
-0.011579 -0.015064 -0.079327
-0.014266 -0.012550 -0.083370
-0.013870 -0.012985 -0.079648
0.003475 0.018680 -0.200339
-0.009244 0.016600 -0.199301
-0.005914 0.018056 -0.204789
0.003080 0.018749 -0.055907
0.001827 0.018912 -0.060104
0.013252 -0.013616 -0.010000
0.014541 -0.012229 -0.014561
0.011768 0.014917 -0.010000
0.012112 0.014639 -0.015654
-0.008555 0.016965 -0.021251
0.018713 0.003292 -0.021579
0.016733 0.009001 -0.023199
0.012111 0.014640 -0.021100
0.000906 0.018978 -0.030012
0.013796 -0.013064 -0.029964
-0.018462 0.004491 -0.193031
-0.017223 -0.008007 -0.025017
0.017506 0.007385 -0.187237
0.018955 0.001300 -0.188498
0.009772 -0.016294 -0.180633
0.010408 -0.015896 -0.183750
0.010509 -0.015829 -0.037054
0.018444 -0.004563 -0.049483
-0.014886 -0.011808 -0.029302
-0.011671 0.014993 -0.193421
-0.014356 0.012446 -0.033143
-0.010305 -0.015962 -0.038198
-0.012905 -0.013945 -0.040264
-0.012461 -0.014343 -0.036393
-0.014749 -0.011977 -0.038459
-0.014367 -0.012434 -0.034589
-0.015105 0.011525 -0.041729
-0.015656 0.010764 -0.036616
-0.018588 -0.003934 -0.036351
-0.018298 -0.005116 -0.041078
-0.018987 -0.000709 -0.043675
-0.011318 -0.015261 -0.033326
-0.013364 -0.013505 -0.031521
0.003933 -0.018588 -0.187752
0.012941 -0.013911 -0.171255
0.013410 -0.013460 -0.165199
-0.003580 -0.018660 -0.189204
-0.003681 -0.018640 -0.193792
-0.008876 -0.016799 -0.190492
0.011245 -0.015315 -0.175633
0.002496 -0.018835 -0.033115
0.014470 -0.012314 -0.064839
0.004637 -0.018426 -0.057336
0.004165 -0.018538 -0.054284
-0.006317 -0.017919 -0.039045
-0.003885 -0.018599 -0.036065
-0.008098 -0.017188 -0.035218
0.005178 -0.018281 -0.051056
0.009003 -0.016731 -0.052990
-0.006098 -0.017995 -0.057696
0.003911 -0.018593 -0.156356
0.004678 -0.018415 -0.151533
0.005895 -0.018062 -0.155498
-0.000016 -0.019000 -0.154851
0.003220 0.018725 -0.121667
0.003961 0.018583 -0.124244
0.000903 0.018979 -0.123851
0.001655 0.018928 -0.126427
-0.018094 0.005797 -0.054201
-0.017418 0.007590 -0.052184
-0.007559 -0.017431 -0.185238
0.004154 0.018540 -0.023801
-0.006892 0.017706 -0.161185
-0.003411 0.018691 -0.154534
-0.005576 0.018163 -0.149692
-0.008768 0.016856 -0.149760
-0.006136 0.017982 -0.143698
-0.009286 0.016576 -0.143767
0.011212 0.015339 -0.150157
0.005362 0.018228 -0.138800
0.008558 0.016963 -0.133773
0.005079 0.018309 -0.133466
-0.017241 0.007983 -0.155619
-0.017751 0.006774 -0.149680
-0.010673 0.015719 -0.147374
-0.013830 0.013028 -0.144620
-0.014774 0.011947 -0.141903
-0.013650 0.013216 -0.135348
0.012739 -0.014097 -0.161354
0.018776 -0.002911 -0.146946
0.014758 -0.011967 -0.147358
0.018888 0.002061 -0.133716
-0.008859 -0.016808 -0.155193
-0.002710 -0.018806 -0.157286
-0.008331 -0.017076 -0.150283
-0.001037 -0.018972 -0.138976
-0.001117 -0.018967 -0.133079
-0.000561 -0.018992 -0.135639
0.001710 -0.018923 -0.132639
0.002263 -0.018865 -0.135199
0.015287 -0.011283 -0.138973
-0.015500 -0.010988 -0.162033
-0.015191 -0.011412 -0.156893
-0.017097 -0.008288 -0.161887
0.018642 -0.003669 -0.182232
0.011745 0.014935 -0.127975
0.009081 0.016689 -0.128070
-0.005019 0.018325 -0.122746
-0.004406 0.018482 -0.127385
-0.002458 0.018840 -0.122010
-0.001830 0.018912 -0.126649
0.005567 0.018166 -0.103980
0.007973 0.017246 -0.104610
0.012186 -0.014578 -0.123708
0.009306 -0.016565 -0.129383
0.018830 -0.002535 -0.151835
0.010171 -0.016049 -0.096445
0.009096 -0.016681 -0.091297
0.013156 -0.013708 -0.095955
-0.006765 -0.017755 -0.114575
-0.009126 -0.016665 -0.112273
-0.010640 -0.015742 -0.116820
-0.004272 -0.018514 -0.120530
-0.012055 -0.014686 -0.111251
-0.008422 -0.017031 -0.101540
-0.005081 -0.018308 -0.092895
-0.002168 -0.018876 -0.096769
-0.005890 -0.018064 -0.096457
0.006123 -0.017986 -0.134913
0.001790 -0.018915 -0.138536
0.005671 -0.018134 -0.138250
-0.013682 -0.013184 -0.117620
-0.018862 -0.002282 -0.109035
-0.018775 0.002918 -0.110019
-0.018980 0.000880 -0.105774
-0.018030 0.005993 -0.106758
-0.018938 -0.001537 -0.112637
-0.015868 -0.010451 -0.099852
-0.014738 -0.011991 -0.104958
-0.018304 -0.005095 -0.123151
-0.017611 -0.007130 -0.125919
-0.018391 -0.004771 -0.126067
-0.018945 -0.001447 -0.126283
-0.018195 -0.005472 -0.128206
-0.017325 -0.007800 -0.128057
-0.018349 -0.004930 -0.100076
-0.018653 -0.003615 -0.104555
-0.018994 -0.000470 -0.101294
0.017894 0.006389 -0.178162
-0.008956 0.016757 -0.113788
-0.010926 0.015544 -0.116037
-0.011599 0.015049 -0.120054
-0.017135 -0.008208 -0.096904
-0.018783 -0.002867 -0.097472
-0.016924 0.008636 -0.107690
0.018295 -0.005127 -0.089456
-0.001390 0.018949 -0.103746
0.002398 0.018848 -0.103962
-0.011702 0.014968 -0.038569
0.000390 0.018996 -0.078105
0.000108 -0.019000 -0.096483
-0.002851 -0.018785 -0.092610
-0.001652 -0.018928 -0.076948
-0.004806 -0.018382 -0.072692
-0.000841 -0.018981 -0.074205
0.000127 -0.019000 -0.071452
-0.008921 -0.016776 -0.088206
-0.012446 -0.014356 -0.090969
-0.011784 -0.014904 -0.085788
-0.014819 -0.011892 -0.088551
-0.007215 -0.017577 -0.077710
-0.015689 -0.010717 -0.081082
-0.016879 -0.008724 -0.078795
-0.015350 -0.011197 -0.077360
-0.009209 -0.016619 -0.085468
-0.016837 -0.008804 -0.088848
-0.018438 -0.004585 -0.086488
-0.016326 -0.009719 -0.071277
-0.017924 -0.006302 -0.074896
-0.018597 -0.003894 -0.072455
-0.015008 -0.011652 -0.073602
-0.014279 -0.012535 -0.069798
-0.016737 -0.008992 -0.037833
-0.017197 -0.008079 -0.033083
-0.018049 -0.005935 -0.068886
-0.018998 0.000244 -0.070064
-0.018908 -0.001867 -0.066494
-0.017943 0.006250 -0.065086
-0.016211 -0.009910 -0.062453
-0.018014 -0.006041 -0.064474
-0.018387 -0.004786 -0.061179
-0.018992 -0.000561 -0.063200
-0.018985 0.000748 -0.059905
-0.003125 -0.018741 -0.066067
-0.005290 -0.018249 -0.061481
-0.006918 -0.017696 -0.068106
-0.008935 -0.016768 -0.063521
-0.009673 -0.016353 -0.059736
0.015474 -0.011025 -0.058229
0.018783 0.002861 -0.068464
-0.002125 0.018881 -0.064813
-0.006327 0.017916 -0.062310
-0.000005 0.019000 -0.062757
0.005340 0.018234 -0.074417
0.002441 0.018843 -0.067945
0.013543 0.013326 -0.027693
0.011094 0.015425 -0.024339
0.008701 -0.016891 -0.088655
0.004436 -0.018475 -0.088233
0.018317 -0.005049 -0.044572
0.011857 -0.014846 -0.055488
0.011164 -0.015374 -0.034074
-0.016421 -0.009557 -0.083667
-0.004865 -0.018367 -0.148850
0.005138 -0.018292 -0.127109
0.005594 -0.018158 -0.132353
-0.018916 -0.001780 -0.123367
0.010579 -0.015782 -0.100680
0.011978 -0.014749 -0.157001
0.009131 -0.016662 -0.158713
0.007280 -0.017550 -0.159571
0.005645 0.018142 -0.127763
0.003506 0.018674 -0.141269
0.003216 0.018726 -0.135934
0.001322 0.018954 -0.138403
0.000663 0.018988 -0.132744
-0.001245 0.018959 -0.135213
-0.003288 0.018713 -0.137826
-0.001078 0.018969 -0.129225
0.003381 0.018697 -0.129946
-0.007935 0.017264 -0.122068
-0.012790 0.014051 -0.122583
-0.009319 0.016558 -0.124598
-0.000921 -0.018978 -0.189905
0.001280 -0.018957 -0.187051
-0.000735 0.018986 -0.141016
0.001234 -0.018960 -0.158791
-0.009480 -0.016466 -0.078519
-0.003718 -0.018633 -0.089825
-0.007981 0.017243 -0.038139
-0.018947 0.001422 -0.067269
-0.018804 0.002723 -0.063974
-0.018496 0.004346 -0.061017
-0.018866 0.002250 -0.053089
-0.016269 -0.009815 -0.066865
-0.018952 0.001344 -0.092402
-0.018773 -0.002931 -0.089011
-0.018902 0.001931 -0.086382
-0.018998 0.000258 -0.089474
-0.004001 -0.018574 -0.185450
-0.007177 -0.017592 -0.073495
-0.017756 0.006763 -0.103444
-0.008457 -0.017014 -0.070505
-0.009983 -0.016166 -0.099002
-0.012863 -0.013983 -0.094337
-0.009892 -0.016222 -0.094942
-0.010384 -0.015912 -0.065920
-0.014151 -0.012679 -0.106978
-0.017011 -0.008463 -0.041704
-0.012109 -0.014641 -0.105965
-0.005724 -0.018117 -0.087481
-0.007042 -0.017647 -0.090551
-0.018169 -0.005558 -0.112075
-0.017993 -0.006105 -0.107503
-0.007559 -0.017432 -0.093919
-0.008327 -0.017078 -0.097481
-0.009410 -0.016506 -0.091574
0.000844 -0.018981 -0.086173
0.016733 0.009001 -0.041500
-0.001255 -0.018958 -0.035338
0.001769 -0.018917 -0.037669
-0.018456 -0.004516 -0.056328
-0.018905 -0.001902 -0.058116
-0.018686 -0.003439 -0.053906
-0.018983 -0.000804 -0.055695
-0.018854 -0.002351 -0.051485
-0.017542 -0.007300 -0.059390
-0.018987 0.000702 -0.048879
-0.017709 -0.006883 -0.047013
-0.018627 -0.003744 -0.046282
-0.018171 -0.005550 -0.052216
-0.015752 -0.010624 -0.032370
-0.016594 -0.009255 -0.057700
-0.014872 -0.011824 -0.060476
-0.015333 -0.011221 -0.055723
-0.013309 -0.013560 -0.058499
-0.011237 -0.015321 -0.061010
-0.012549 -0.014266 -0.063409
-0.011908 -0.014805 -0.057225
-0.009298 -0.016569 -0.043774
-0.003167 -0.018734 -0.031511
-0.017514 -0.007366 -0.103023
-0.016610 -0.009226 -0.075036
-0.018105 -0.005763 -0.078655
-0.017464 -0.007484 -0.081379
-0.018474 -0.004441 -0.081239
-0.017931 -0.006283 -0.172015
-0.005763 0.018105 -0.121143
-0.014205 -0.012619 -0.065386
-0.010181 0.016042 -0.153367
-0.018699 -0.003368 -0.154777
-0.017815 -0.006605 -0.158244
0.003904 -0.018595 -0.044963
0.001430 -0.018946 -0.041038
0.007796 0.017327 -0.024369
-0.012627 0.014197 -0.128480
0.014601 -0.012158 -0.142441
0.002250 0.018866 -0.074515
-0.009750 0.016308 -0.128323
-0.006634 0.017804 -0.128310
-0.012995 0.013861 -0.132206
-0.007223 0.017574 -0.123672
0.018996 0.000367 -0.185173
-0.017819 -0.006593 -0.054638
-0.014893 -0.014805 -0.102568
-0.017390 -0.011773 -0.101641
-0.016726 -0.012697 -0.104169
-0.019277 -0.008329 -0.100714
-0.018798 -0.009361 -0.103242
-0.018264 -0.010365 -0.105770
-0.020091 0.006112 -0.198669
-0.020797 0.002914 -0.204335
-0.020940 0.001580 -0.198684
-0.020997 -0.000354 -0.210000
-0.020932 -0.001694 -0.204349
-0.020781 -0.003028 -0.198698
-0.013413 0.016158 -0.210000
-0.012820 0.016633 -0.204986
-0.010476 0.018200 -0.210000
-0.012210 0.017086 -0.199972
-0.009811 0.018567 -0.204986
-0.007235 0.019714 -0.210000
-0.021000 -0.000000 -0.010000
-0.020848 0.002523 -0.010000
-0.020873 0.002305 -0.016464
-0.020394 0.005009 -0.010000
-0.020445 0.004796 -0.016464
-0.020494 0.004582 -0.022927
-0.020837 0.002615 -0.210000
-0.020177 0.005822 -0.204335
-0.020258 0.005531 -0.210000
-0.016404 0.013112 -0.197731
-0.018580 0.009787 -0.198200
-0.017100 0.012190 -0.192641
-0.019090 0.008751 -0.193111
-0.017744 0.011232 -0.187552
-0.017910 0.010965 -0.210000
-0.019155 0.008608 -0.204335
-0.017190 0.012062 -0.203865
0.017059 -0.012247 -0.025563
0.015976 -0.013629 -0.030127
0.017366 -0.011807 -0.029372
0.014782 -0.014916 -0.034690
0.016319 -0.013217 -0.033935
0.017662 -0.011360 -0.033180
-0.020565 0.004252 -0.193622
-0.020997 -0.000338 -0.193637
-0.020867 0.002358 -0.188575
-0.019536 0.007703 -0.016464
-0.018344 0.010222 -0.022176
-0.018107 0.010637 -0.010000
-0.016539 0.012941 -0.015713
-0.014679 0.015018 -0.021425
-0.019050 0.008838 -0.028454
-0.015749 0.013891 -0.027703
-0.016733 0.012688 -0.033980
-0.009566 0.018695 -0.010000
-0.012261 0.017049 -0.015713
-0.011909 0.017297 -0.010000
-0.014368 0.015315 -0.015713
-0.014051 0.015607 -0.010000
-0.020676 -0.003674 -0.015784
-0.020954 -0.001382 -0.022247
-0.019715 -0.007234 -0.021567
-0.020644 -0.003852 -0.010000
-0.019651 -0.007404 -0.015784
-0.019587 -0.007573 -0.010000
-0.012638 0.016771 -0.021338
-0.012182 0.017106 -0.027090
-0.010390 0.018250 -0.021251
-0.009895 0.018523 -0.027003
-0.009392 0.018783 -0.032754
-0.007306 0.019688 -0.015744
-0.009980 0.018477 -0.015626
-0.004946 0.020409 -0.021487
-0.007744 0.019520 -0.021369
0.016499 -0.012992 -0.139168
0.016582 -0.012885 -0.141449
0.018485 -0.009965 -0.137936
0.016665 -0.012779 -0.143731
0.018549 -0.009846 -0.140218
0.019922 -0.006643 -0.136705
-0.019673 -0.007346 -0.199050
-0.019779 -0.007055 -0.194685
-0.017680 -0.011332 -0.199401
-0.017845 -0.011071 -0.195036
-0.018006 -0.010807 -0.190671
-0.015996 -0.013607 -0.210000
-0.013942 -0.015705 -0.205267
-0.016876 -0.012498 -0.204701
-0.011615 -0.017496 -0.200534
-0.014968 -0.014730 -0.199968
0.008078 0.019384 -0.199301
0.005563 0.020250 -0.204651
0.004864 0.020429 -0.200134
0.002958 0.020791 -0.210000
0.002242 0.020880 -0.205483
0.001523 0.020945 -0.200967
-0.014145 -0.015522 -0.210000
-0.012067 -0.017187 -0.210000
-0.011842 -0.017343 -0.205267
-0.014017 0.015637 -0.192788
-0.014856 0.014843 -0.187699
-0.011248 0.017734 -0.187845
-0.012366 0.016973 -0.181897
-0.015781 0.013855 -0.181750
-0.013433 0.016141 -0.175949
-0.017523 0.011574 -0.175655
-0.018966 0.009015 -0.176542
-0.018439 0.010051 -0.171737
-0.020039 0.006281 -0.177429
-0.019661 0.007380 -0.172624
-0.019222 0.008456 -0.167819
-0.020138 0.005955 -0.193351
-0.020597 0.004092 -0.188304
-0.020184 0.005797 -0.188033
-0.020763 -0.003148 -0.165845
-0.020971 -0.001099 -0.163063
-0.020995 -0.000477 -0.168810
-0.020978 0.000961 -0.160280
-0.020940 0.001582 -0.166027
-0.020884 0.002202 -0.171774
-0.008877 0.019031 -0.182531
-0.010084 0.018420 -0.176583
-0.006360 0.020014 -0.177216
-0.008778 0.019078 -0.171344
-0.012277 0.017037 -0.170710
-0.011062 0.017851 -0.165471
-0.003517 0.020703 -0.197080
-0.007213 0.019723 -0.197230
-0.004166 0.020583 -0.192418
-0.010669 0.018088 -0.197381
-0.007829 0.019486 -0.192569
-0.004811 0.020441 -0.187756
-0.005589 0.020242 -0.182486
-0.002407 0.020862 -0.182948
-0.003203 0.020754 -0.177678
0.000029 0.021000 -0.178140
0.000378 0.020997 -0.210000
-0.002207 0.020884 -0.210000
-0.000343 0.020997 -0.205483
0.012644 0.016767 -0.186387
0.010270 0.018317 -0.186717
0.010003 0.018464 -0.181783
0.007709 0.019534 -0.187048
0.007425 0.019644 -0.182114
0.007139 0.019749 -0.177180
0.010389 0.018250 -0.192911
0.012752 0.016685 -0.192581
0.012861 0.016601 -0.198775
-0.019473 -0.007861 -0.189431
-0.020462 -0.004723 -0.188191
-0.020639 -0.003879 -0.193445
-0.017287 -0.011923 -0.176853
-0.016576 -0.012894 -0.172668
-0.018442 -0.010045 -0.172549
-0.015809 -0.013822 -0.168484
-0.017836 -0.011085 -0.168364
-0.019393 -0.008056 -0.168245
-0.004834 -0.020436 -0.210000
-0.002496 -0.020851 -0.210000
-0.005310 -0.020318 -0.205077
-0.000126 -0.021000 -0.210000
-0.002982 -0.020787 -0.205077
-0.005783 -0.020188 -0.200155
-0.002581 -0.020841 -0.192850
0.000187 -0.020999 -0.191546
-0.003759 -0.020661 -0.188426
0.002952 -0.020792 -0.190241
-0.001005 -0.020976 -0.187121
-0.004926 -0.020414 -0.184001
0.005561 -0.020250 -0.210000
0.009693 -0.018629 -0.210000
0.007216 -0.019721 -0.207066
0.013391 -0.016176 -0.210000
0.011200 -0.017764 -0.207066
0.008822 -0.019057 -0.204132
0.004616 -0.020486 -0.207971
0.002743 -0.020820 -0.210000
0.003661 -0.020678 -0.205943
0.001775 -0.020925 -0.207971
0.008807 -0.019064 -0.175928
0.003742 -0.020664 -0.176920
0.007990 -0.019421 -0.180240
-0.001562 -0.020942 -0.177911
0.002862 -0.020804 -0.181231
0.007159 -0.019742 -0.184551
0.017161 -0.012104 -0.190421
0.018935 -0.009081 -0.188469
0.017434 -0.011707 -0.184749
0.020182 -0.005805 -0.186517
0.019138 -0.008645 -0.182797
0.017698 -0.011305 -0.179078
0.019299 -0.008279 -0.198968
0.016749 -0.012668 -0.198458
0.018342 -0.010225 -0.204484
0.013220 -0.016317 -0.197948
0.015353 -0.014328 -0.203974
0.017190 -0.012063 -0.210000
0.018808 -0.009342 -0.210000
0.019998 -0.006408 -0.210000
0.019671 -0.007352 -0.204484
0.015336 -0.014346 -0.194184
0.018330 -0.010247 -0.194695
0.020981 0.000902 -0.210000
0.020464 0.004712 -0.210000
0.020965 0.001216 -0.206467
0.019262 0.008365 -0.210000
0.020391 0.005019 -0.206467
0.020944 0.001531 -0.202935
0.020869 0.002344 -0.195743
0.019904 0.006696 -0.197182
0.020437 0.004830 -0.191940
0.018042 0.010746 -0.198620
0.018957 0.009035 -0.193378
0.019710 0.007247 -0.188137
0.020856 -0.002457 -0.186065
0.020865 -0.002376 -0.182151
0.020978 0.000956 -0.185614
0.020974 0.001038 -0.181699
0.020970 0.001120 -0.177785
0.019779 -0.007056 -0.192743
0.020608 -0.004039 -0.188632
0.020315 -0.005320 -0.194858
0.020880 -0.002243 -0.190747
0.020666 0.003733 -0.178359
0.020593 0.004117 -0.172454
0.020037 0.006288 -0.178933
0.019916 0.006659 -0.173027
0.019789 0.007028 -0.167122
0.018455 0.010021 -0.182712
0.019879 0.006769 -0.183535
0.016811 0.012585 -0.177286
0.018691 0.009573 -0.178109
0.020345 -0.005202 -0.177115
0.020234 -0.005620 -0.171591
0.019338 -0.008188 -0.172572
0.020114 -0.006035 -0.166067
0.019165 -0.008584 -0.167047
0.017895 -0.010990 -0.168028
0.020266 -0.005504 -0.181816
0.019265 -0.008359 -0.178096
0.003638 0.020682 -0.177660
0.003890 0.020637 -0.171829
0.000285 0.020998 -0.172309
0.000540 0.020993 -0.166478
0.002999 0.020785 -0.188487
0.001518 0.020945 -0.183314
0.005095 0.020372 -0.182833
-0.009067 0.018942 -0.160327
-0.010079 0.018423 -0.162899
-0.011767 0.017394 -0.157296
-0.012691 0.016732 -0.159868
-0.014208 0.015464 -0.154264
0.003909 0.020633 -0.166287
0.007176 0.019736 -0.166097
0.007158 0.019742 -0.171638
0.007765 0.019512 -0.160042
0.009622 0.018666 -0.160318
0.008348 0.019270 -0.153987
0.010100 0.018412 -0.154533
0.011765 0.017395 -0.155080
0.009895 0.018522 -0.176947
0.012447 0.016913 -0.176715
0.012546 0.016841 -0.181551
0.018419 0.010087 -0.166523
0.018658 0.009638 -0.161542
0.016580 0.012889 -0.165924
0.016887 0.012483 -0.160943
0.017185 0.012070 -0.155961
0.016696 0.012737 -0.171605
0.018510 0.009919 -0.172204
-0.009256 0.018850 -0.154246
-0.009809 0.018569 -0.149384
-0.006851 0.019851 -0.154394
-0.010352 0.018271 -0.144521
-0.007665 0.019551 -0.149361
-0.004340 0.020547 -0.154541
-0.014023 0.015632 -0.171001
-0.014593 0.015102 -0.166053
-0.012901 0.016570 -0.165762
0.012131 0.017142 -0.167120
0.014649 0.015046 -0.172203
0.012290 0.017028 -0.171918
0.014789 0.014910 -0.177001
-0.020427 0.004872 -0.155304
-0.020701 0.003530 -0.150855
-0.019839 0.006887 -0.151689
-0.020887 0.002173 -0.146407
-0.020245 0.005579 -0.147240
-0.019052 0.008833 -0.148074
-0.014064 -0.015595 -0.177988
-0.012078 -0.017179 -0.174851
-0.014963 -0.014735 -0.173236
-0.009915 -0.018512 -0.171713
-0.013074 -0.016434 -0.170098
-0.002816 -0.020810 -0.172312
-0.005865 -0.020164 -0.174812
-0.004061 -0.020604 -0.166713
-0.007066 -0.019776 -0.169213
0.000163 -0.020999 -0.151620
0.001816 -0.020921 -0.146556
-0.001633 -0.020936 -0.148534
0.003459 -0.020713 -0.141493
0.000021 -0.021000 -0.143471
-0.003417 -0.020720 -0.145449
-0.019744 -0.007153 -0.157653
-0.018274 -0.010348 -0.157072
-0.019078 -0.008776 -0.150589
-0.016290 -0.013253 -0.156492
-0.017346 -0.011837 -0.150009
-0.018279 -0.010337 -0.143526
-0.016052 -0.013540 -0.162488
-0.018087 -0.010671 -0.163068
0.002117 -0.020893 -0.158919
0.003707 -0.020670 -0.162201
0.005880 -0.020160 -0.157006
0.005274 -0.020327 -0.165483
0.007403 -0.019652 -0.160288
0.009447 -0.018755 -0.155093
0.003637 -0.020683 -0.168609
0.007069 -0.019775 -0.170706
0.001975 -0.020907 -0.171736
0.005469 -0.020275 -0.173832
-0.001054 -0.020974 -0.169224
0.000208 -0.020999 -0.174823
0.009765 -0.018592 -0.167051
0.011386 -0.017645 -0.172274
0.013742 -0.015880 -0.168620
0.017127 -0.012152 -0.158969
0.015839 -0.013788 -0.155108
0.014737 -0.014961 -0.160212
0.014396 -0.015289 -0.151247
0.013183 -0.016346 -0.156351
0.011892 -0.017308 -0.161455
0.016006 -0.013595 -0.168324
0.015546 -0.014118 -0.163794
0.017520 -0.011577 -0.163499
-0.020426 -0.004877 -0.176724
-0.019183 -0.008545 -0.176789
-0.019973 -0.006487 -0.172484
0.013702 -0.015914 -0.183314
0.011364 -0.017659 -0.179621
0.010605 -0.018126 -0.183932
-0.020446 0.004790 -0.164050
-0.020296 0.005393 -0.169797
-0.020558 -0.004285 -0.144967
-0.019832 -0.006906 -0.146869
-0.020993 -0.000544 -0.148310
-0.020746 -0.003253 -0.150213
-0.020761 -0.003157 -0.158966
-0.020968 -0.001152 -0.155246
-0.020339 -0.005227 -0.153933
-0.020612 -0.004016 -0.171285
-0.020956 -0.001357 -0.174249
0.014718 0.014980 -0.155521
0.015100 0.014594 -0.150243
0.012211 0.017085 -0.149802
0.012649 0.016763 -0.144524
0.014350 0.015332 -0.160502
0.016693 0.012742 -0.144042
0.017035 0.012280 -0.138403
0.018674 0.009605 -0.138909
0.017365 0.011809 -0.132764
0.018931 0.009090 -0.133270
0.020073 0.006169 -0.133776
0.016942 0.012408 -0.150002
0.018868 0.009219 -0.151039
0.018682 0.009591 -0.145079
0.020083 0.006138 -0.146116
0.020998 0.000252 -0.135541
0.020748 0.003244 -0.134658
0.020849 0.002515 -0.129612
0.020277 0.005462 -0.128729
0.020456 0.004749 -0.123682
0.020078 0.006154 -0.139946
0.020750 0.003228 -0.140828
0.020865 0.002381 -0.146247
0.020637 0.003885 -0.151436
0.020949 -0.001456 -0.146379
0.021000 0.000065 -0.151568
0.020940 0.001585 -0.156756
0.020991 -0.000603 -0.140960
0.020600 -0.004082 -0.141542
0.020748 -0.003240 -0.136123
0.000013 0.021000 -0.144413
-0.002176 0.020887 -0.149477
-0.002756 0.020818 -0.144401
-0.004911 0.020418 -0.149465
-0.005478 0.020273 -0.144390
-0.004064 0.020603 -0.133355
-0.007302 0.019690 -0.138938
-0.007648 0.019558 -0.133648
-0.010673 0.018086 -0.139232
-0.010990 0.017895 -0.133942
-0.006398 0.020002 -0.130762
-0.005055 0.020383 -0.128059
-0.008648 0.019137 -0.128168
-0.007357 0.019669 -0.125465
-0.006034 0.020114 -0.122762
-0.015833 0.013796 -0.143538
-0.013283 0.016266 -0.144030
-0.015043 0.014652 -0.148901
-0.012360 0.016977 -0.149393
-0.016332 0.013201 -0.133381
-0.017490 0.011623 -0.129116
-0.014704 0.014993 -0.127601
-0.018496 0.009944 -0.124850
-0.016036 0.013559 -0.123336
-0.012881 0.016586 -0.121821
-0.018634 0.009684 -0.139934
-0.016085 0.013500 -0.138460
-0.020389 0.005029 -0.136330
-0.018810 0.009338 -0.134856
0.018687 0.009580 -0.155936
0.019832 0.006907 -0.155911
0.019810 0.006968 -0.161516
0.019961 0.006524 -0.151013
0.020559 0.004282 -0.156334
0.020605 0.004054 -0.167417
0.020977 0.000992 -0.167711
0.020973 0.001056 -0.172748
0.020878 -0.002263 -0.161412
0.020960 0.001289 -0.162234
0.020844 -0.002558 -0.166889
0.020773 -0.003081 -0.151096
0.020470 -0.004687 -0.155813
0.020941 -0.001569 -0.156285
0.020940 0.001585 -0.156756
0.015696 -0.013951 -0.133950
0.018180 -0.010512 -0.135327
0.017933 -0.010927 -0.128585
0.019764 -0.007099 -0.129963
0.019595 -0.007552 -0.123221
0.019849 -0.006858 -0.145613
0.019886 -0.006750 -0.141159
0.018495 -0.009946 -0.144672
0.018910 -0.009133 -0.146900
0.020189 -0.005781 -0.150713
0.017711 -0.011283 -0.148187
0.019374 -0.008103 -0.152000
-0.020984 0.000825 -0.152758
0.004745 -0.020457 -0.145108
0.007307 -0.019688 -0.143288
0.006013 -0.020121 -0.148722
0.008521 -0.019193 -0.146902
0.010892 -0.017954 -0.145082
-0.009745 -0.018602 -0.142544
-0.007041 -0.019784 -0.140610
-0.010121 -0.018400 -0.137325
-0.004199 -0.020576 -0.138676
-0.007442 -0.019637 -0.135391
-0.010494 -0.018190 -0.132106
-0.002334 -0.020870 -0.129749
0.001333 -0.020958 -0.129872
0.000283 -0.020998 -0.125427
0.004959 -0.020406 -0.129995
0.003932 -0.020629 -0.125550
0.002896 -0.020799 -0.121106
0.003119 -0.020767 -0.150171
0.004279 -0.020559 -0.138699
0.008083 -0.019382 -0.140494
0.005093 -0.020373 -0.135906
-0.016887 -0.012483 -0.141509
-0.019237 -0.008423 -0.138476
-0.015244 -0.014444 -0.139492
-0.018070 -0.010699 -0.136459
-0.019995 -0.006420 -0.133425
-0.014802 -0.014897 -0.144280
-0.016503 -0.012987 -0.146296
-0.014345 -0.015336 -0.149067
0.020971 0.001109 -0.118921
0.020909 0.001949 -0.123810
0.020843 -0.002565 -0.114161
0.020929 -0.001727 -0.119049
0.020981 -0.000886 -0.123937
0.019385 0.008076 -0.123246
0.019500 0.007795 -0.117121
0.017777 0.011179 -0.122809
0.017937 0.010921 -0.116684
0.018093 0.010661 -0.110559
0.015907 0.013710 -0.128039
0.017574 0.011496 -0.127787
0.014242 0.015433 -0.123313
0.016150 0.013423 -0.123061
0.020539 0.004377 -0.111074
0.020654 0.003797 -0.105245
0.020995 0.000447 -0.107284
0.020752 0.003215 -0.099416
0.021000 -0.000144 -0.101454
0.020707 -0.003498 -0.103493
0.020498 0.004563 -0.117378
0.020980 0.000918 -0.112617
0.020653 -0.003801 -0.130321
0.020560 -0.004275 -0.123579
0.010759 -0.018034 -0.134586
0.013337 -0.016221 -0.129411
0.010510 -0.018181 -0.129351
0.015615 -0.014042 -0.124236
0.013113 -0.016403 -0.124176
0.010259 -0.018323 -0.124116
0.018818 -0.009322 -0.114111
0.017377 -0.011791 -0.119174
0.019227 -0.008446 -0.118666
0.017902 -0.010979 -0.123728
0.016036 0.013558 -0.112036
0.016300 0.013240 -0.105816
0.013521 0.016068 -0.113513
0.013835 0.015799 -0.107293
0.014143 0.015523 -0.101074
0.013885 0.015755 -0.118413
0.010980 0.017901 -0.118531
0.011386 0.017645 -0.123431
0.008194 0.019335 -0.123548
0.009994 0.018469 -0.143801
0.012049 0.017200 -0.139441
0.007114 0.019758 -0.143077
0.009336 0.018811 -0.138718
0.011434 0.017614 -0.134359
0.008715 -0.019106 -0.163469
0.010694 -0.018073 -0.158274
0.007680 -0.019545 -0.127055
0.006693 -0.019905 -0.122611
0.005708 -0.020209 -0.117337
0.001995 -0.020905 -0.116231
0.008413 -0.019241 -0.113568
0.004830 -0.020437 -0.112462
0.001091 -0.020972 -0.111357
0.020116 -0.006029 -0.114136
0.020372 -0.005097 -0.118691
0.012532 -0.016851 -0.118873
0.009347 -0.018805 -0.118842
0.014595 -0.015099 -0.113629
0.011689 -0.017446 -0.113599
-0.000909 -0.020980 -0.121533
-0.001814 -0.020921 -0.116658
-0.004685 -0.020471 -0.121960
-0.010776 0.018025 -0.098022
-0.011063 0.017850 -0.103430
-0.014137 0.015529 -0.100103
-0.011348 0.017670 -0.108838
-0.014384 0.015301 -0.105511
-0.016936 0.012417 -0.102184
-0.003559 0.020696 -0.107129
-0.000488 0.020994 -0.102730
-0.000363 0.020997 -0.107228
0.002594 0.020839 -0.098331
0.002718 0.020823 -0.102829
0.002841 0.020807 -0.107327
-0.015282 0.014404 -0.120017
-0.017933 0.010927 -0.121531
-0.017318 0.011878 -0.118212
0.008436 0.019231 -0.112500
0.008315 0.019284 -0.118024
0.004337 0.020547 -0.116689
0.004209 0.020574 -0.122213
0.000057 0.021000 -0.120878
-0.007605 0.019574 -0.107984
-0.007291 0.019694 -0.102575
-0.015739 0.013903 -0.086846
-0.016344 0.013186 -0.091262
-0.018279 0.010337 -0.089934
-0.016917 0.012443 -0.095678
-0.018723 0.009510 -0.094350
-0.020026 0.006322 -0.093022
-0.003630 0.020684 -0.088765
-0.006772 0.019878 -0.087937
-0.006427 0.019992 -0.082637
-0.009751 0.018599 -0.087109
-0.009429 0.018764 -0.081809
-0.009104 0.018924 -0.076510
-0.010268 0.018319 -0.092565
-0.007325 0.019681 -0.093393
-0.014125 0.015540 -0.096850
-0.013416 0.016156 -0.092434
-0.018829 0.009298 -0.076422
-0.019517 0.007751 -0.080777
-0.020415 0.004924 -0.078266
-0.020078 0.006153 -0.085132
-0.020745 0.003263 -0.082621
-0.020998 0.000308 -0.080111
-0.007506 0.019613 -0.098310
-0.004011 0.020613 -0.098598
-0.003785 0.020656 -0.102863
-0.000524 0.020993 -0.093548
-0.003821 0.020650 -0.093681
-0.000717 0.020988 -0.098464
0.001452 0.020950 -0.114102
0.005693 0.020214 -0.109914
-0.018719 -0.009517 -0.093746
-0.016792 -0.012611 -0.094122
-0.017468 -0.011657 -0.088724
-0.014359 -0.015324 -0.094498
-0.015189 -0.014501 -0.089101
-0.015972 -0.013634 -0.083703
0.004717 -0.020463 -0.106246
0.000062 -0.021000 -0.105430
0.008201 -0.019333 -0.101135
0.003710 -0.020670 -0.100319
-0.000966 -0.020978 -0.099504
0.011444 0.017608 -0.095537
0.010865 0.017971 -0.092594
0.014411 0.015275 -0.091599
0.010273 0.018316 -0.089652
0.013906 0.015736 -0.088657
0.016913 0.012448 -0.087661
0.012836 0.016620 -0.098305
0.015604 0.014054 -0.094367
0.019762 0.007104 -0.105474
0.018625 0.009701 -0.099874
0.019954 0.006545 -0.099645
0.004692 0.020469 -0.078343
0.001195 0.020966 -0.078275
0.003108 0.020769 -0.075610
-0.002337 0.020870 -0.078207
-0.000418 0.020996 -0.075542
0.001505 0.020946 -0.072877
0.002657 0.020831 -0.094478
-0.000460 0.020995 -0.089695
0.002721 0.020823 -0.090626
-0.003515 -0.020704 -0.125854
-0.018323 0.010260 -0.085989
-0.017437 0.011703 -0.081634
-0.019297 0.008283 -0.072002
-0.017151 0.012118 -0.070247
-0.019711 0.007245 -0.067582
-0.017771 0.011189 -0.065827
-0.015053 0.014642 -0.064072
-0.020320 0.005300 -0.074740
-0.020972 0.001083 -0.073059
-0.020573 0.004211 -0.070320
-0.020984 0.000824 -0.069305
-0.020849 0.002515 -0.069862
-0.020992 0.000565 -0.065551
-0.020878 0.002257 -0.066108
-0.020628 0.003935 -0.066665
-0.012300 0.017021 -0.082064
-0.014597 0.015097 -0.077019
-0.012004 0.017231 -0.076764
-0.015421 -0.014255 -0.076840
-0.015700 -0.013947 -0.080271
-0.013049 -0.016453 -0.080569
-0.013375 -0.016190 -0.084000
-0.010375 -0.018258 -0.084297
-0.005888 -0.020158 -0.060209
-0.006518 -0.019963 -0.065600
-0.001490 -0.020947 -0.066403
-0.007141 -0.019749 -0.070991
-0.002147 -0.020890 -0.071794
0.002975 -0.020788 -0.072596
0.005295 -0.020321 -0.077361
0.007838 -0.019482 -0.071974
0.007549 -0.019596 -0.082125
0.009981 -0.018476 -0.076738
0.012251 -0.017056 -0.071352
0.013782 -0.015844 -0.082856
0.016387 -0.013132 -0.083139
0.015626 -0.014029 -0.077976
0.018467 -0.009999 -0.083423
0.017878 -0.011017 -0.078259
0.017233 -0.012001 -0.073095
0.014957 -0.014741 -0.072223
0.014585 -0.015109 -0.066190
0.016928 -0.012427 -0.067062
0.016613 -0.012845 -0.061029
0.019990 -0.006434 -0.070406
0.019827 -0.006920 -0.073933
0.020784 -0.003001 -0.075104
0.019652 -0.007402 -0.077461
0.020705 -0.003508 -0.078631
0.020994 0.000516 -0.079802
0.020724 -0.003394 -0.069931
0.020612 -0.004020 -0.065470
0.020998 -0.000278 -0.069456
0.020980 -0.000913 -0.064995
0.020943 -0.001548 -0.060534
0.020709 0.003486 -0.074046
0.021000 0.000119 -0.074629
0.020005 0.006386 -0.068290
0.020771 0.003094 -0.068873
0.020786 -0.002989 -0.092125
0.021000 0.000114 -0.095770
0.020969 0.001137 -0.090603
0.020571 0.004222 -0.094248
0.020341 0.005220 -0.089080
-0.014444 -0.015244 -0.046919
-0.013630 -0.015976 -0.051244
-0.011176 -0.017779 -0.048575
-0.012780 -0.016664 -0.055569
-0.010235 -0.018337 -0.052900
-0.007475 -0.019625 -0.050232
-0.004208 -0.020574 -0.040600
-0.002528 -0.020847 -0.046167
-0.000173 -0.020999 -0.043057
-0.000832 -0.020983 -0.051734
0.001527 -0.020944 -0.048625
0.003867 -0.020641 -0.045515
0.014807 -0.014892 -0.052427
0.013251 -0.016291 -0.055520
0.015743 -0.013898 -0.056728
0.011565 -0.017529 -0.058612
0.014282 -0.015395 -0.059820
0.020413 -0.004932 -0.060606
0.019340 -0.008184 -0.060677
0.019684 -0.007316 -0.065542
0.020977 0.000989 -0.055058
0.020824 -0.002713 -0.057180
0.020704 0.003513 -0.049581
0.020999 -0.000181 -0.051704
0.020640 -0.003869 -0.053827
-0.017772 0.011188 -0.053601
-0.018485 0.009965 -0.056142
-0.019770 0.007082 -0.050413
-0.019115 0.008696 -0.058682
-0.020202 0.005734 -0.052954
-0.020833 0.002642 -0.047225
-0.020960 -0.001303 -0.035125
-0.020906 0.001987 -0.034955
-0.020989 0.000673 -0.041175
-0.020339 0.005228 -0.034785
-0.020627 0.003943 -0.041005
-0.019769 -0.007084 -0.044193
-0.019101 -0.008727 -0.050400
-0.017586 -0.011477 -0.045556
-0.018296 -0.010307 -0.056607
-0.016555 -0.012920 -0.051763
-0.020875 -0.002284 -0.045709
-0.020568 -0.004236 -0.039659
-0.012619 0.016786 -0.043650
-0.015271 0.014415 -0.043334
-0.014818 0.014880 -0.038815
-0.017485 0.011631 -0.043019
-0.017117 0.012166 -0.038500
-0.015860 -0.013765 -0.056088
-0.004209 -0.020574 -0.050983
-0.005860 -0.020166 -0.045416
-0.016039 0.013555 -0.053614
-0.016503 0.012986 -0.058837
-0.013993 0.015658 -0.053627
-0.014532 0.015160 -0.058850
-0.010401 0.018244 -0.049337
-0.013318 0.016237 -0.048638
-0.008016 0.019410 -0.055025
-0.011164 0.017787 -0.054326
-0.006338 0.020021 -0.048766
-0.008813 0.019061 -0.043078
-0.004615 0.020487 -0.042506
-0.007055 0.019780 -0.037630
-0.011051 0.017857 -0.038202
-0.019532 -0.007715 -0.131022
-0.020234 -0.005620 -0.130353
-0.018985 -0.008976 -0.128619
-0.019823 -0.006932 -0.127950
-0.020441 -0.004811 -0.127281
0.001417 0.020952 -0.030956
0.005097 0.020372 -0.032036
0.002492 0.020852 -0.037383
0.008617 0.019151 -0.033116
0.006138 0.020083 -0.038463
0.003561 0.020696 -0.043810
0.018350 0.010211 -0.048800
0.019812 0.006962 -0.049191
0.019311 0.008252 -0.053707
0.020428 0.004868 -0.054098
0.020063 0.006203 -0.058614
0.019828 0.006918 -0.030230
0.019173 0.008567 -0.034908
0.018653 0.009648 -0.031500
0.018381 0.010156 -0.039585
0.017771 0.011188 -0.036178
0.017104 0.012185 -0.032770
0.014402 0.015283 -0.043628
0.016591 0.012874 -0.041607
0.016571 0.012899 -0.046214
0.018366 0.010184 -0.044193
0.020855 0.002464 -0.064412
0.020866 0.002369 -0.059574
0.020034 0.006295 -0.063452
0.019083 -0.008765 -0.049020
0.020048 -0.006251 -0.047368
0.018774 -0.009410 -0.044479
0.020683 -0.003633 -0.045716
0.019824 -0.006930 -0.042827
0.018442 -0.010044 -0.039938
0.019823 0.006932 -0.044583
0.020765 0.003133 -0.044587
0.019947 0.006568 -0.039589
0.020819 0.002752 -0.039592
0.020430 0.004860 -0.034911
0.013793 0.015835 -0.037222
0.015829 0.013800 -0.038199
0.013162 0.016363 -0.030816
0.015277 0.014409 -0.031793
0.017015 0.012308 -0.022379
0.015224 0.014465 -0.026598
0.013803 0.015827 -0.022187
0.011572 0.017524 -0.026406
0.009881 0.018530 -0.021995
0.018617 0.009716 -0.026305
0.020055 0.006227 -0.025113
0.018943 0.009065 -0.021188
0.020259 0.005529 -0.019997
0.020473 -0.004675 -0.010000
0.020200 -0.005742 -0.014878
0.020786 -0.002989 -0.012362
0.019871 -0.006792 -0.019756
0.020601 -0.004074 -0.017239
0.020961 -0.001283 -0.014723
0.010979 0.017902 -0.031966
0.011671 0.017458 -0.038372
0.005965 0.020135 -0.021232
0.007811 0.019493 -0.015998
0.001807 0.020922 -0.020469
0.003744 0.020664 -0.015234
0.005649 0.020226 -0.010000
-0.001786 0.020924 -0.026221
0.001612 0.020938 -0.025712
-0.001591 0.020940 -0.020978
0.019967 -0.006505 -0.032047
0.020714 -0.003456 -0.030489
0.019920 -0.006649 -0.025901
0.020997 -0.000330 -0.028932
0.020688 -0.003605 -0.024344
0.020732 0.003346 -0.029581
0.020835 0.002626 -0.024464
0.017852 -0.011059 -0.010000
0.018982 -0.008982 -0.014878
0.019427 -0.007975 -0.010000
0.017606 -0.011447 -0.018608
0.016208 -0.013353 -0.013731
0.014270 -0.015406 -0.017461
0.006388 -0.020005 -0.010000
0.010582 -0.018139 -0.013731
0.009839 -0.018553 -0.010000
0.013635 -0.015972 -0.013731
0.012977 -0.016511 -0.010000
0.011432 -0.017615 -0.019743
0.013779 -0.015847 -0.022501
0.008259 -0.019308 -0.022024
0.010873 -0.017966 -0.024783
0.013274 -0.016273 -0.027541
0.004305 -0.020554 -0.014786
0.007332 -0.019679 -0.016012
0.002177 -0.020887 -0.019571
0.005278 -0.020326 -0.020798
-0.004157 -0.020584 -0.010000
-0.001001 -0.020976 -0.014786
-0.001905 -0.020913 -0.010000
0.001274 -0.020961 -0.014786
0.000368 -0.020997 -0.010000
-0.003558 -0.020696 -0.019477
-0.006642 -0.019922 -0.014691
-0.009028 -0.018961 -0.019382
0.021000 -0.000061 -0.047649
0.020995 -0.000446 -0.042654
-0.017341 0.011845 -0.061377
0.020748 -0.003244 -0.097809
0.019950 -0.006558 -0.103422
0.020022 -0.006333 -0.097863
0.018743 -0.009471 -0.103350
0.019976 -0.006479 -0.108802
0.018781 -0.009396 -0.108731
0.020963 -0.001241 -0.085963
0.020801 0.002886 -0.084441
0.015061 -0.014634 -0.094074
0.016793 -0.012610 -0.093336
0.014435 -0.015253 -0.088465
0.018254 -0.010383 -0.092597
0.016249 -0.013303 -0.087727
0.011593 -0.017510 -0.107382
0.011690 -0.017445 -0.102035
0.014679 -0.015018 -0.108282
0.014762 -0.014936 -0.102935
0.018504 -0.009930 -0.097974
0.017098 -0.012192 -0.098712
-0.020586 -0.004147 -0.115476
-0.020183 -0.005799 -0.113518
-0.020610 -0.004028 -0.111110
-0.019648 -0.007413 -0.111559
-0.020217 -0.005682 -0.109151
-0.020633 -0.003908 -0.106743
-0.012267 0.017045 -0.070291
-0.014827 0.014871 -0.070546
-0.020560 0.004274 -0.113080
-0.020948 0.001472 -0.107077
-0.020364 0.005130 -0.107493
-0.020956 -0.001357 -0.101073
-0.020869 0.002346 -0.101489
-0.020132 0.005976 -0.101905
0.017822 0.011108 -0.093768
0.019611 0.007510 -0.094477
0.018974 0.008999 -0.088371
-0.004774 0.020450 -0.138872
-0.007978 0.019425 -0.144456
-0.019744 -0.007153 -0.157653
-0.020352 -0.005176 -0.161749
-0.019574 -0.007606 -0.162949
-0.020227 -0.005644 -0.167045
-0.020131 -0.005977 -0.025991
-0.021000 -0.000058 -0.026671
-0.020468 -0.004696 -0.030414
-0.020783 -0.003010 -0.032769
-0.020154 -0.005901 -0.037303
-0.015028 0.014669 -0.033961
-0.013089 0.016422 -0.033942
-0.012855 0.016605 -0.038796
-0.013902 0.015740 -0.027684
-0.011302 0.017699 -0.033348
-0.020630 0.003926 -0.182436
-0.020886 0.002190 -0.182707
-0.020903 0.002021 -0.176840
-0.020804 -0.002860 -0.083059
-0.020807 -0.002844 -0.079046
-0.020136 -0.005963 -0.086007
-0.020140 -0.005947 -0.081993
-0.020145 -0.005932 -0.077980
-0.016957 0.012388 -0.151169
-0.017618 0.011428 -0.145806
-0.007215 0.019722 -0.027121
-0.007074 0.019773 -0.032331
-0.004800 0.020444 -0.026698
-0.004654 0.020478 -0.031909
0.009819 -0.018563 -0.044062
0.012435 -0.016923 -0.039376
0.008147 -0.019355 -0.039655
0.010897 -0.017951 -0.034969
0.006413 -0.019997 -0.035248
-0.004634 0.020482 -0.037207
-0.008302 -0.019289 -0.024867
-0.006260 -0.020045 -0.021896
-0.007564 -0.019590 -0.030353
-0.005495 -0.020268 -0.027381
-0.003367 -0.020728 -0.024410
0.011866 -0.017326 -0.097604
0.014912 -0.014786 -0.098505
0.007344 -0.019674 -0.028636
0.010018 -0.018457 -0.031395
-0.020419 0.004906 -0.028856
-0.020935 0.001656 -0.029026
0.016544 0.012935 -0.010000
0.016782 0.012624 -0.016190
0.014896 0.014802 -0.010000
0.015170 0.014521 -0.016190
0.013040 0.016461 -0.010000
0.019682 0.007324 -0.014998
0.018053 0.010728 -0.016190
0.018945 0.009060 -0.010000
-0.000600 -0.020991 -0.021991
0.001791 -0.020923 -0.024387
-0.000987 -0.020977 -0.026806
0.001405 -0.020953 -0.029203
0.003414 -0.020721 -0.010000
-0.016573 -0.012897 -0.010000
-0.018275 -0.010345 -0.010000
-0.018363 -0.010187 -0.015784
-0.005811 0.020180 -0.010000
-0.001842 0.020919 -0.010000
-0.003404 0.020722 -0.015744
-0.008288 -0.019295 -0.010000
-0.012067 -0.017187 -0.010000
-0.010584 -0.018138 -0.014691
-0.019455 0.007906 -0.010000
-0.016270 0.013278 -0.010000
0.009532 0.018712 -0.010000
0.011507 0.017567 -0.015998
0.015654 -0.013999 -0.010000
0.020837 0.002613 -0.010000
0.020974 -0.001047 -0.010000
0.020989 0.000668 -0.012362
0.017850 0.011063 -0.010000
0.015428 -0.014247 -0.210000
0.013306 -0.016247 -0.203974
-0.007714 0.019532 -0.201707
-0.005646 0.020227 -0.199393
-0.003175 0.020759 -0.201337
-0.001004 0.020976 -0.199023
-0.019277 0.008331 -0.210000
0.007148 0.019746 -0.210000
0.009587 0.018684 -0.204651
0.011036 0.017866 -0.210000
-0.009699 -0.018626 -0.043760
-0.015875 0.013747 -0.210000
-0.014986 0.014711 -0.203865
0.016103 0.013479 -0.210000
0.017127 0.012152 -0.204310
0.017867 0.011036 -0.210000
0.018042 0.010746 -0.198620
0.018690 0.009575 -0.204310
0.002618 -0.020836 -0.200477
-0.001615 -0.020938 -0.200316
0.001249 -0.020963 -0.205238
-0.007475 0.019625 -0.205854
-0.004757 0.020454 -0.210000
-0.005006 0.020394 -0.205854
-0.008143 0.019357 -0.187801
-0.010960 0.017913 -0.192613
0.020600 0.004081 -0.014998
0.020889 0.002152 -0.017360
0.020151 0.005912 -0.010000
-0.019730 -0.007192 -0.210000
-0.018149 -0.010565 -0.210000
-0.018819 -0.009318 -0.204701
-0.020649 -0.003826 -0.210000
-0.020816 -0.002777 -0.207197
-0.020068 -0.006185 -0.207197
-0.020355 -0.005163 -0.204393
-0.008061 -0.019391 -0.204582
-0.009884 -0.018529 -0.202558
-0.010124 -0.018398 -0.207291
0.002785 -0.020815 -0.195359
0.005506 -0.020265 -0.194776
0.002618 -0.020836 -0.200477
0.005343 -0.020309 -0.199894
0.007976 -0.019426 -0.199312
0.008390 -0.019251 -0.194094
0.010711 -0.018063 -0.198630
0.020944 0.001531 -0.202935
0.020711 -0.003473 -0.200952
0.020853 -0.002484 -0.206467
0.020813 -0.002797 -0.210000
0.020965 0.001216 -0.206467
0.020774 -0.003069 -0.197356
0.020910 0.001938 -0.199339
0.020542 0.004363 -0.198268
0.020623 0.003962 -0.201864
0.020020 0.006340 -0.200792
0.007894 0.019460 -0.193175
0.010562 0.018151 -0.199038
0.017300 0.011904 -0.194304
0.016484 0.013010 -0.189988
0.018325 0.010256 -0.189062
-0.000262 0.020998 -0.192783
0.002263 0.020878 -0.194727
0.005583 0.020244 -0.193894
-0.013763 0.015861 -0.197556
-0.013645 -0.015963 -0.015742
-0.011435 -0.017614 -0.017562
-0.012871 -0.016594 -0.012871
-0.000018 0.021000 -0.015234
0.001935 0.020911 -0.010000
-0.011466 -0.017594 -0.097088
-0.012276 -0.017038 -0.094476
-0.008221 -0.019324 -0.099678
-0.009116 -0.018918 -0.097066
-0.009991 -0.018471 -0.094454
0.017059 0.012247 -0.027575
0.009254 0.018851 -0.027556
0.018734 -0.009488 -0.028805
0.018666 -0.009623 -0.022659
0.015744 -0.013897 -0.021512
0.015300 -0.014385 -0.026552
0.020965 0.001214 -0.034262
0.020912 -0.001925 -0.035820
0.009867 0.018538 -0.098704
0.011340 0.017675 -0.101472
0.008215 0.019327 -0.101871
0.006617 0.019930 -0.090139
0.005985 0.020129 -0.087006
0.002062 0.020898 -0.087493
0.001402 0.020953 -0.084360
0.020935 0.001651 -0.190678
0.020586 0.004150 -0.186875
0.021000 0.000051 -0.193245
0.015549 -0.014115 -0.186868
0.015868 -0.013755 -0.181196
0.013463 -0.016117 -0.190631
0.010332 -0.018282 -0.191249
0.019286 -0.008310 -0.035992
0.020289 -0.005418 -0.035909
0.019706 -0.007257 -0.039855
0.020552 -0.004315 -0.039772
0.014044 -0.015613 -0.031116
0.017220 -0.012020 -0.050724
0.015292 -0.014393 -0.048540
0.017609 -0.011443 -0.046836
0.015761 -0.013878 -0.044652
0.020898 -0.002065 -0.177450
0.020662 -0.003751 -0.049772
0.020012 -0.006365 -0.051423
-0.020610 0.004028 -0.064284
-0.020868 0.002351 -0.063728
-0.020592 0.004120 -0.061904
-0.018794 -0.009369 -0.182921
-0.018414 -0.010096 -0.186796
-0.016721 -0.012704 -0.180455
-0.016213 -0.013347 -0.184330
-0.020444 -0.004800 -0.182458
-0.020955 -0.001369 -0.182515
-0.020950 -0.001447 -0.176782
-0.019053 0.008831 -0.182491
-0.020113 0.006040 -0.182731
-0.019158 0.008602 -0.187793
-0.008158 -0.019350 -0.088589
-0.006552 -0.019952 -0.086180
-0.009283 -0.018837 -0.086443
-0.004903 -0.020420 -0.083771
-0.007715 -0.019532 -0.084034
-0.011796 -0.017374 -0.089119
-0.010026 -0.018452 -0.088854
-0.011094 -0.017830 -0.086708
-0.019923 0.006639 -0.037091
-0.019409 0.008017 -0.039396
-0.020300 0.005377 -0.043311
-0.018908 0.009138 -0.034383
-0.009162 0.018896 -0.157287
-0.011853 0.017335 -0.154255
-0.018535 0.009871 -0.041208
-0.019679 0.007330 -0.045122
-0.018778 -0.009402 -0.039262
-0.020154 -0.005901 -0.037303
-0.017516 -0.011584 -0.034330
-0.019302 -0.008273 -0.032372
-0.015830 -0.013799 -0.020824
-0.016977 -0.012361 -0.023886
-0.014968 -0.014730 -0.023856
-0.017993 -0.010828 -0.026948
-0.016199 -0.013363 -0.026918
-0.014051 -0.015607 -0.026888
0.000699 -0.020988 -0.184076
-0.003255 -0.020746 -0.180956
0.005082 -0.020376 -0.187396
0.018600 -0.009748 -0.055695
0.017675 -0.011340 -0.058362
0.018986 -0.008974 -0.058186
0.018127 -0.010603 -0.060853
0.019839 -0.006885 -0.054761
0.020106 -0.006062 -0.057252
0.016251 -0.013300 -0.177883
0.014582 -0.015112 -0.176688
0.014148 -0.015519 -0.180001
0.011860 -0.017330 -0.176308
0.003938 -0.020627 -0.032225
0.004902 -0.020420 -0.025613
0.002999 -0.020785 -0.038570
0.004722 -0.020462 -0.036909
0.002203 -0.020884 -0.033886
-0.009220 0.018868 -0.199544
0.017209 -0.012036 -0.042295
-0.013448 -0.016129 -0.041593
-0.008499 -0.019203 -0.038434
-0.012399 -0.016949 -0.036267
-0.018290 -0.010318 -0.042498
-0.016287 -0.013256 -0.040803
-0.016922 -0.012435 -0.037567
0.020974 -0.001049 -0.017284
0.020635 -0.003899 -0.019797
0.020984 -0.000814 -0.019845
0.020864 0.002385 -0.019921
-0.015398 -0.014280 -0.043861
0.006504 -0.019967 -0.041316
-0.001414 -0.020952 -0.034901
-0.005907 -0.020152 -0.035476
-0.003154 -0.020762 -0.029778
0.008900 -0.019021 -0.059559
0.011910 -0.017296 -0.064982
0.006047 -0.020111 -0.060506
0.009276 -0.018841 -0.065929
-0.015196 -0.014494 -0.035299
-0.015911 -0.013705 -0.030609
-0.013242 -0.016299 -0.031578
-0.015187 -0.014504 -0.012871
-0.014480 -0.015210 -0.010000
-0.002992 -0.020786 -0.059797
0.001473 -0.020948 -0.065990
-0.000037 -0.021000 -0.059385
-0.020280 -0.005453 -0.067727
-0.019440 -0.007942 -0.062167
-0.020321 -0.005295 -0.062289
-0.019501 -0.007791 -0.056728
-0.020362 -0.005137 -0.056850
0.000019 -0.021000 -0.196664
-0.008965 -0.018990 -0.190154
-0.010317 -0.018291 -0.195344
-0.007398 -0.019654 -0.195155
-0.008802 -0.019066 -0.200345
-0.005846 -0.020170 -0.191502
-0.006982 -0.019805 -0.187078
-0.010373 -0.018259 -0.182985
-0.007725 -0.019528 -0.183493
-0.010144 -0.018387 -0.177349
-0.007481 -0.019622 -0.177857
0.000622 -0.020991 -0.166098
-0.014180 -0.015489 -0.188740
-0.014626 -0.015069 -0.191906
-0.011704 -0.017436 -0.189447
-0.015059 -0.014637 -0.195072
-0.012207 -0.017087 -0.192613
0.002643 -0.020833 -0.056120
0.004360 -0.020542 -0.058313
0.005133 -0.020363 -0.054065
0.006802 -0.019868 -0.056258
0.007548 -0.019597 -0.052010
0.003038 -0.020779 -0.059945
0.001306 -0.020959 -0.057752
-0.015783 -0.013853 -0.177421
-0.009539 -0.018708 -0.164097
-0.009160 -0.018897 -0.156480
-0.012740 -0.016694 -0.162482
-0.012291 -0.017028 -0.180487
-0.020966 -0.001200 -0.188383
-0.020581 0.004173 -0.177134
-0.020975 0.001019 -0.095797
-0.020972 -0.001082 -0.094332
-0.020989 0.000679 -0.092698
-0.020759 -0.003173 -0.092867
-0.020952 -0.001422 -0.091232
-0.020997 0.000339 -0.089598
-0.020999 -0.000170 -0.098435
-0.020877 -0.002267 -0.096970
-0.020873 -0.002308 -0.061200
-0.021000 0.000109 -0.060853
-0.020818 -0.002761 -0.056502
-0.020997 -0.000347 -0.056154
-0.014287 -0.015391 -0.057956
-0.012055 -0.017195 -0.056622
-0.015667 -0.013983 -0.060343
-0.013615 -0.015988 -0.059009
-0.011309 -0.017695 -0.057675
-0.001616 0.020938 -0.036731
-0.001636 0.020936 -0.031432
-0.017634 0.011403 -0.181604
-0.000922 0.020980 -0.188121
-0.005845 0.020170 -0.171594
-0.008286 0.019296 -0.165721
-0.005326 0.020313 -0.165971
-0.009461 -0.018748 -0.073415
-0.006031 -0.020115 -0.077381
-0.011645 -0.017476 -0.075839
-0.008404 -0.019245 -0.079805
0.005390 0.020296 -0.187767
0.014685 0.015012 -0.188187
0.016649 0.012799 -0.183637
